1712956179818468988, 501, 220, 24.39200782775879, 936, 936,935,935,935,935,935,935,935,936,2047,936,936,936,936,936,936,936,936,936,2047,936,935,936,936,936,936,936,936,936,936,935,935,936,935,935,936,936,936,936,936,935,935,935,935,935,935,936,936,936,936,935,935,936,935,935,936,936,936,936,936,935,935,936,936,936,937,937,937,937,937,935,936,936,936,937,937,937,937,937,937,936,937,937,937,937,937,937,937,937,937,936,937,937,937,937,792,792,791,791,791, 0.3519726, 0.038891999999999996, -1.733848534557794, 
1712956179861378091, 501, 218, 24.09281349182129, 936, 936,936,936,936,936,935,935,935,2047,2047,936,936,936,936,936,936,935,936,935,2047,936,936,936,936,936,936,936,936,936,937,936,936,936,936,936,936,936,937,936,936,936,936,936,936,937,937,937,937,936,937,935,936,936,936,936,936,936,937,936,936,935,935,936,936,936,936,936,937,936,936,935,935,936,936,936,936,937,937,937,936,935,935,936,936,937,937,937,938,937,937,934,935,935,935,937,936,937,938,937,936, 0.3519726, 0.0427812, -1.7452993933644383, 
1712956179904403369, 501, 219, 23.8405704498291, 936, 936,936,936,936,935,935,935,935,936,2047,936,936,936,936,936,936,935,936,936,937,936,936,936,936,936,936,936,936,936,937,936,936,936,936,936,936,936,936,936,937,935,935,936,935,936,936,936,936,936,937,935,935,935,935,935,936,936,936,936,937,935,935,935,935,936,936,936,936,937,937,935,935,935,935,936,936,936,936,937,937,935,935,935,936,937,936,937,936,937,937,934,935,935,936,936,936,937,936,938,937, 0.3519726, 0.040836599999999994, -1.7335948467671072, 
1712956179941387668, 502, 219, 24.186872482299805, 936, 936,936,936,936,936,936,936,936,2047,2047,936,936,936,936,936,936,936,936,937,937,936,936,936,936,936,936,936,936,937,936,936,936,936,936,936,936,936,936,936,936,935,936,936,936,936,936,936,936,936,936,935,935,935,936,936,936,936,936,936,936,935,935,935,936,936,936,936,936,936,936,935,936,936,937,937,937,937,936,936,935,935,936,936,937,937,937,937,936,936,935,935,936,937,937,937,937,937,936,935,934, 0.3539172, 0.040836599999999994, -1.7410478586796787, 
1712956179975563328, 502, 218, 23.81070327758789, 935, 936,936,935,936,936,935,935,935,2047,2047,936,936,936,936,936,935,936,935,2047,2047,936,936,936,936,936,935,936,936,936,2047,936,936,936,936,936,935,935,935,935,935,935,936,936,936,936,936,936,936,936,935,935,936,936,936,936,935,936,936,936,935,935,935,935,935,935,935,935,936,936,935,935,935,935,935,935,935,936,936,936,935,935,935,935,935,935,936,936,937,936,936,935,935,935,935,935,936,937,937,936,936, 0.353535, 0.042735, -1.8051689414853895, 
1712956180009484418, 502, 218, 23.801408767700195, 936, 936,936,936,936,935,935,935,936,2047,2047,936,936,936,936,935,935,936,936,937,2047,936,936,936,936,936,935,936,936,937,937,936,936,936,936,936,936,936,936,937,936,936,936,936,936,936,936,937,937,937,936,935,935,935,936,936,936,937,937,937,936,935,935,935,936,936,936,937,937,936,936,935,935,935,936,936,936,937,936,936,936,935,935,935,936,936,937,937,937,936,936,935,935,935,936,936,937,938,938,937,936, 0.3539172, 0.0427812, -1.7821363818359583, 
1712956180045989074, 502, 219, 23.85491180419922, 936, 936,936,936,936,935,935,936,936,937,2047,936,936,936,936,936,936,936,936,937,937,936,936,936,936,936,936,936,936,937,937,936,936,936,936,936,937,937,936,937,936,935,936,936,936,936,936,937,936,937,936,935,935,935,936,936,936,936,936,936,936,935,935,935,935,936,936,936,936,936,936,935,935,935,936,936,937,937,937,936,935,935,935,935,936,936,938,937,937,937,935,934,935,935,936,936,935,935,936,936,935, 0.3539172, 0.040836599999999994, -1.7206222410815517, 
1712956180080926814, 502, 219, 24.028621673583984, 936, 936,936,936,935,935,935,935,936,936,2047,936,936,936,936,935,935,936,936,936,937,936,936,936,936,935,935,936,936,936,936,935,936,936,936,936,936,936,936,936,936,935,936,936,936,936,936,936,936,937,936,935,935,935,936,936,936,936,936,936,936,935,935,935,936,936,936,936,936,936,936,935,935,935,936,936,936,937,937,936,936,934,935,935,936,936,936,937,937,937,936,934,934,935,935,935,935,935,936,936,936, 0.3539172, 0.040836599999999994, -1.769525664124637, 
1712956180121690534, 503, 219, 23.970911026000977, 937, 936,936,936,935,936,936,936,936,2047,2047,936,936,936,936,936,936,936,936,2047,2047,936,936,936,936,936,937,936,936,936,936,936,936,937,937,937,937,937,937,936,936,936,936,936,936,937,937,937,936,936,936,936,935,936,936,937,937,937,936,936,936,935,935,936,936,937,937,937,937,936,936,935,935,936,937,937,937,937,937,936,936,935,935,936,936,938,938,938,937,936,936,935,934,934,934,935,935,937,937,937,935, 0.35624609999999995, 0.0408807, -1.7298857880208969, 
1712956180154200838, 503, 218, 24.13477897644043, 936, 936,935,935,935,935,935,935,935,935,2047,936,936,935,935,935,935,935,935,935,2047,936,936,936,935,936,936,936,935,936,936,936,936,936,936,936,936,936,935,935,935,936,936,936,936,936,936,936,936,936,935,936,936,936,936,936,936,936,936,935,935,936,936,936,936,936,936,936,936,935,935,936,936,936,936,936,936,936,936,935,935,936,936,936,936,937,937,937,936,935,935,936,936,937,936,937,937,937,936,936,935, 0.35586179999999995, 0.0427812, -1.7966004913646298, 
1712956180185607901, 502, 219, 23.771020889282227, 937, 936,936,936,936,935,935,936,936,936,2047,935,935,936,936,935,936,936,936,937,936,936,936,936,936,936,936,936,936,936,936,936,936,936,936,936,937,937,937,937,936,935,936,936,936,936,937,937,937,937,936,935,935,935,936,936,937,937,937,937,936,935,935,935,936,936,937,937,937,937,936,935,935,936,936,936,937,938,938,937,936,935,935,936,936,936,938,938,937,937,935,935,935,936,934,934,938,938,937,936,935, 0.3542994, 0.0408807, -1.7563329336798101, 
1712956180219620035, 502, 218, 24.102981567382812, 937, 936,936,935,935,935,935,935,935,935,935,936,936,936,935,935,935,936,936,936,935,936,936,936,936,935,936,936,936,936,936,936,936,936,936,936,936,936,936,936,936,936,936,936,936,936,937,937,937,936,936,935,936,936,936,936,937,937,937,936,936,935,936,936,936,936,937,937,937,937,936,935,936,936,936,936,937,937,937,937,936,935,936,936,936,937,938,938,938,937,936,935,936,936,937,936,938,938,938,937,936, 0.3542994, 0.042827399999999995, -1.7630173726898986, 
1712956180252985846, 502, 219, 24.026126861572266, 937, 936,936,936,936,935,936,936,936,936,936,936,936,936,936,935,936,936,936,937,936,936,936,936,936,936,936,936,936,937,936,936,936,936,936,936,936,937,937,937,936,936,936,936,936,937,937,937,937,937,936,936,936,936,936,936,937,937,937,937,936,936,936,936,937,937,937,937,937,937,936,935,936,936,937,937,938,938,938,937,936,935,936,937,938,938,938,938,938,937,936,935,936,937,938,938,938,938,938,937,936, 0.3542994, 0.0408807, -1.7431346517804938, 
1712956180285869818, 502, 217, 24.05495834350586, 937, 936,936,936,936,935,935,936,936,936,2047,936,936,936,936,935,935,936,936,936,937,936,936,936,936,935,936,936,936,936,936,936,936,936,936,936,936,936,936,936,937,936,936,936,937,936,936,936,936,936,936,936,937,937,937,937,937,937,937,936,936,936,936,936,937,936,937,937,937,936,936,936,936,936,937,936,937,937,937,936,936,935,936,936,937,936,936,936,937,936,936,936,936,936,937,937,937,937,937,937,936, 0.3542994, 0.0447741, -1.800141866722126, 
1712956180320737827, 502, 219, 23.990737915039062, 936, 936,936,936,936,936,935,936,936,937,2047,936,936,936,936,936,936,936,936,937,937,936,936,936,936,936,936,936,936,937,937,936,936,936,936,936,936,936,936,937,936,935,936,936,936,936,936,936,937,937,936,935,936,935,936,936,936,936,937,937,936,935,935,935,936,936,936,936,937,937,936,935,935,935,936,936,937,937,937,937,936,935,935,935,936,936,937,937,938,938,937,935,935,935,937,937,937,937,938,938,937, 0.3539172, 0.040836599999999994, -1.7701129913830067, 
1712956180356284542, 501, 219, 23.82448959350586, 936, 936,936,936,936,936,936,935,936,935,2047,936,936,936,936,936,936,936,936,936,936,936,936,936,936,936,936,936,936,936,936,936,936,936,936,936,936,936,937,936,936,935,935,936,936,936,936,936,937,936,936,935,935,936,935,936,936,936,936,936,936,935,935,936,935,936,937,937,937,936,936,935,936,936,936,937,937,938,938,937,936,935,935,936,936,937,937,938,938,938,937,935,935,936,936,937,937,938,938,938,934, 0.3519726, 0.040836599999999994, -1.7425269220544723, 
1712956180401365369, 500, 219, 23.442514419555664, 936, 936,936,936,936,936,936,936,936,936,935,936,936,936,936,936,936,936,936,936,936,936,936,936,936,936,936,936,936,936,936,936,936,936,936,936,936,936,936,936,936,936,935,936,936,936,936,936,936,936,936,935,935,935,936,936,936,936,936,936,936,935,935,935,936,936,936,936,936,936,936,935,935,936,936,936,936,937,937,936,937,935,935,936,936,937,937,937,937,937,937,934,935,935,936,936,937,937,937,937,937, 0.35002799999999995, 0.040836599999999994, -1.8196483143172624, 
1712956180435104952, 499, 219, 23.5459041595459, 935, 937,936,936,936,936,935,935,935,935,935,936,936,936,936,936,936,935,935,935,935,936,936,936,936,936,936,936,936,936,936,936,936,936,936,936,936,936,936,936,937,936,935,935,936,936,936,936,936,936,936,935,935,935,935,936,935,935,935,936,936,935,935,935,935,935,935,936,935,936,936,935,935,935,935,935,936,936,936,937,937,935,935,935,935,935,936,936,936,937,937,934,934,934,935,935,935,936,936,937,937, 0.3477075, 0.040792499999999995, -1.7501023119775554, 
1712956180466997400, 498, 219, 23.717578887939453, 936, 936,936,936,936,937,937,936,936,936,936,937,936,936,936,937,937,937,937,936,936,936,936,936,936,936,937,936,937,936,936,936,936,936,936,936,937,936,936,936,937,936,936,935,936,936,936,936,936,936,936,936,935,935,935,935,936,935,936,936,936,935,935,935,935,935,935,935,936,936,936,935,935,935,935,935,935,936,936,936,937,935,935,935,935,935,935,936,937,937,937,934,934,934,934,934,934,934,2047,2047,2047, 0.3461388, 0.040836599999999994, -1.7815453140764528, 
1712956180507288911, 496, 220, 23.64856719970703, 935, 936,936,936,936,936,935,936,937,937,2047,936,936,936,936,936,935,936,937,937,2047,936,936,936,936,935,935,936,936,936,936,936,936,936,935,935,935,935,936,936,936,936,935,936,935,935,935,935,936,935,935,935,935,935,935,935,935,935,936,936,936,935,935,935,935,935,935,935,936,936,937,935,934,935,935,935,935,935,936,937,937,935,934,934,934,934,934,935,935,935,2047,934,934,934,2047,2047,2047,2047,2047,2047,2047, 0.34188, 0.038849999999999996, -1.6968420642519924, 
1712956180539787150, 494, 220, 23.64856719970703, 935, 936,936,936,936,936,936,936,935,934,2047,936,936,936,936,936,936,935,935,935,934,936,936,936,936,936,935,935,935,935,935,936,936,936,936,936,936,935,935,935,935,936,936,936,936,936,935,935,935,935,935,936,936,935,935,935,935,935,935,935,935,936,935,935,935,935,935,935,935,935,935,935,935,935,935,935,935,935,935,935,935,936,936,935,935,935,935,934,934,934,935,936,936,935,935,935,935,934,934,934,2047, 0.337995, 0.038849999999999996, -1.750263248646854, 
1712956180573605444, 492, 220, 23.58983612060547, 936, 936,936,936,936,936,936,936,935,935,934,936,936,936,936,936,936,936,935,935,934,936,936,936,936,936,936,936,935,935,935,936,936,936,936,936,936,936,935,935,935,936,936,936,936,936,936,936,935,935,935,935,936,936,936,935,936,936,935,935,935,935,936,936,936,935,935,935,935,935,935,935,935,935,935,935,935,935,935,935,935,935,935,935,935,935,935,935,935,935,935,935,935,935,935,935,937,937,936,936,935, 0.33447119999999997, 0.038891999999999996, -1.7392808933698112, 
1712956180605455342, 489, 220, 23.446212768554688, 936, 937,936,936,936,936,936,936,936,936,935,936,936,936,936,936,936,936,935,935,935,936,936,936,936,936,936,936,936,935,935,936,936,936,936,936,936,936,936,935,935,936,936,936,936,936,936,936,935,935,935,936,936,935,935,935,936,935,935,935,935,935,935,935,935,935,935,935,935,935,935,935,935,935,935,935,935,935,935,935,935,935,935,935,935,935,935,935,935,934,935,935,935,934,934,2047,935,935,934,934,935, 0.32863739999999997, 0.038891999999999996, -1.7756439716806216, 
1712956180639517726, 487, 220, 23.410720825195312, 935, 937,937,936,936,936,935,935,935,2047,2047,936,936,936,936,935,935,935,935,935,935,936,936,936,936,935,935,935,935,935,935,936,936,936,936,935,935,935,935,935,935,936,936,936,935,935,935,935,935,935,935,936,936,936,935,935,935,935,935,935,935,936,936,935,935,935,935,935,935,935,935,935,935,935,935,935,935,935,935,935,935,935,935,935,934,934,935,934,935,935,935,935,935,934,934,934,934,934,935,934,2047, 0.3243975, 0.038849999999999996, -1.7482427626975603, 
1712956180673515691, 484, 221, 23.6431941986084, 935, 936,936,936,936,936,936,936,935,2047,2047,935,936,936,936,936,936,935,935,935,2047,935,936,936,936,936,936,935,935,935,935,935,936,936,935,935,935,935,935,935,935,936,936,935,935,935,935,935,935,935,935,936,936,936,935,935,935,935,935,935,935,936,936,935,935,935,935,935,935,935,935,936,935,935,935,935,935,935,935,935,935,936,935,935,935,934,935,935,934,935,935,936,935,935,935,934,935,935,935,935,935, 0.31857, 0.036907499999999996, -1.6953969123457575, 
1712956180710004003, 480, 221, 23.75522804260254, 936, 936,936,936,936,936,937,937,935,934,935,936,936,935,936,936,935,934,935,934,935,936,936,936,936,936,936,936,934,934,935,936,936,936,936,936,936,936,936,936,935,936,936,936,936,936,937,936,936,936,936,936,936,936,936,936,936,936,936,936,936,936,936,936,936,936,936,936,936,936,935,937,936,936,936,936,936,936,936,935,935,937,936,936,936,936,936,936,935,935,935,937,937,937,937,937,936,936,936,935,935, 0.31113599999999997, 0.03694739999999999, -1.7300090523715685, 
1712956180739454697, 477, 221, 23.121538162231445, 936, 934,934,935,935,935,935,936,935,2047,2047,935,934,936,936,936,936,936,936,2047,2047,935,934,936,936,936,936,936,936,936,937,935,935,936,936,936,936,936,936,936,937,935,935,936,936,936,936,936,936,936,937,935,935,937,936,936,936,936,936,936,936,935,935,937,936,936,936,936,936,936,936,935,935,937,937,936,936,936,936,936,936,936,936,937,937,936,936,936,936,935,935,936,936,938,937,937,937,936,936,935,935, 0.30530219999999997, 0.03694739999999999, -1.71470539165249, 
1712956180774425365, 473, 222, 23.308021545410156, 935, 935,935,934,934,934,934,935,2047,2047,2047,935,935,935,934,934,934,935,935,2047,2047,935,935,935,935,934,934,935,935,935,2047,935,935,935,934,934,934,935,935,935,935,935,935,935,935,935,935,936,936,936,936,935,935,935,935,935,935,937,937,936,936,935,935,935,935,935,935,937,937,936,936,935,935,935,935,936,936,937,937,937,937,934,934,935,935,936,936,938,937,938,937,934,934,935,935,936,936,938,938,938,937, 0.2972025, 0.034964999999999996, -1.6746842709403675, 
1712956180808530945, 468, 223, 23.674652099609375, 935, 934,934,934,934,934,934,934,934,2047,2047,934,934,935,934,934,934,934,934,2047,2047,934,934,934,934,934,934,934,935,935,935,934,934,934,934,934,935,935,936,936,935,934,934,934,934,934,935,935,935,935,935,934,934,934,934,934,935,935,935,935,935,935,934,934,934,934,935,935,936,935,936,935,934,934,934,934,935,935,936,935,936,935,2047,934,934,934,935,935,936,936,936,934,934,934,934,934,934,935,786,787,937, 0.28749, 0.0330225, -1.6193247614466801, 
1712956180839552501, 463, 224, 23.794395446777344, 934, 934,934,934,934,934,934,934,2047,2047,2047,934,934,934,934,934,934,934,934,934,934,934,934,934,934,934,934,934,934,934,935,934,934,934,934,934,934,934,934,935,935,935,935,935,935,934,934,934,934,935,935,936,935,935,935,935,934,934,934,934,934,936,936,936,936,935,934,934,934,934,933,934,934,935,935,935,934,934,934,934,934,787,786,2047,935,935,935,935,934,934,934,786,786,2047,789,789,789,2047,789,789,789, 0.2774772, 0.0310464, -1.5834999088167974, 
1712956180874606199, 458, 224, 23.84929847717285, 935, 935,934,934,934,934,934,934,2047,2047,2047,935,934,934,934,934,934,934,934,2047,2047,935,934,935,934,934,934,934,934,2047,2047,934,934,934,934,934,934,934,934,2047,2047,935,935,935,935,935,935,935,2047,2047,2047,934,935,935,934,935,935,935,2047,2047,2047,935,935,935,934,934,2047,2047,2047,2047,2047,787,786,787,786,786,2047,2047,2047,2047,2047,786,785,786,785,2047,2047,2047,2047,2047,2047,786,786,786,786,784,2047,2047,2047,2047,2047, 0.268065, 0.03108, -1.570979178824403, 
1712956180911867910, 454, 223, 23.58308982849121, 935, 935,934,934,935,934,934,2047,2047,2047,2047,935,934,934,935,935,934,934,2047,2047,2047,935,934,935,935,935,934,934,2047,2047,2047,935,935,935,935,935,934,934,2047,2047,2047,935,935,934,934,934,934,934,934,934,2047,936,935,935,935,935,935,935,934,934,2047,936,935,935,935,935,935,934,934,934,2047,936,936,935,935,935,935,935,934,2047,2047,936,935,935,935,787,786,787,787,2047,2047,935,935,789,786,787,786,787,2047,2047,2047, 0.26029499999999994, 0.0330225, -1.5463489295306687, 
1712956180940591946, 448, 225, 23.167325973510742, 936, 935,935,935,935,934,934,934,934,2047,2047,936,935,935,936,935,935,935,935,934,2047,936,936,935,936,935,935,935,935,934,934,936,936,936,936,936,936,936,936,935,2047,936,936,936,937,936,936,936,936,936,788,936,936,936,936,936,936,936,936,935,935,936,936,936,936,936,936,936,936,788,788,935,936,935,935,936,936,936,935,789,789,935,935,935,935,789,789,789,790,789,789,934,789,789,789,789,789,789,790,789,789, 0.24890879999999999, 0.029168999999999997, -1.599449502112247, 
1712956180974675442, 442, 224, 22.98801612854004, 936, 936,936,936,935,935,2047,2047,2047,2047,2047,936,936,936,935,935,935,2047,2047,2047,2047,936,935,936,936,935,936,937,937,2047,2047,936,935,936,936,936,936,937,937,2047,2047,936,935,936,936,936,936,937,937,937,937,935,935,936,936,936,936,937,937,937,937,934,935,935,935,935,935,936,937,937,937,934,935,935,935,935,934,936,936,936,936,934,934,935,935,934,934,935,936,935,935,934,934,934,934,934,934,934,936,936,790, 0.23724119999999999, 0.031113599999999998, -1.6135345184044492, 
1712956181013198650, 436, 226, 22.99868392944336, 934, 936,936,936,936,935,935,2047,2047,2047,2047,936,936,936,935,935,934,934,934,2047,2047,936,936,936,936,935,935,935,935,2047,2047,936,936,936,935,935,934,934,934,935,2047,936,936,935,935,935,934,934,934,935,2047,936,936,935,935,934,934,934,934,935,2047,935,936,936,935,935,934,934,935,935,2047,936,935,935,935,935,934,934,934,934,2047,934,934,934,934,934,933,932,933,933,2047,933,933,933,934,933,933,933,932,932,790, 0.2250864, 0.027165599999999998, -1.5726930396956738, 
1712956181042081999, 431, 226, 22.987668991088867, 936, 936,936,936,935,935,935,2047,2047,2047,2047,937,937,936,936,936,935,935,2047,2047,2047,937,937,937,936,936,936,935,2047,2047,2047,937,937,937,936,936,936,935,935,2047,2047,937,937,937,936,936,936,936,935,934,2047,937,937,937,937,936,936,935,935,2047,2047,936,937,936,937,936,937,936,936,2047,2047,936,936,936,936,936,937,936,936,2047,2047,936,936,936,936,936,936,935,935,2047,2047,789,789,788,788,935,935,787,787,2047,2047, 0.21585059999999998, 0.0272244, -1.5354644908538073, 
1712956181073359677, 425, 227, 22.768707275390625, 937, 936,937,937,937,937,2047,2047,2047,2047,2047,936,937,937,937,937,937,2047,2047,2047,2047,936,937,937,937,937,937,937,2047,2047,2047,936,937,937,937,937,937,937,937,2047,2047,936,937,937,937,937,937,937,2047,2047,2047,936,936,937,937,937,937,937,2047,2047,2047,936,936,937,937,937,937,937,2047,2047,2047,935,936,936,936,790,790,2047,2047,2047,793,788,789,790,790,2047,2047,790,2047,792,792,788,789,790,790,790,789,790,790,791,791, 0.2044035, 0.0253071, -1.51544587636015, 
1712956181107938836, 419, 228, 23.332056045532227, 2047, 936,936,2047,2047,2047,2047,2047,2047,2047,2047,936,936,936,936,2047,2047,2047,2047,2047,2047,936,935,936,936,2047,2047,2047,2047,2047,2047,935,935,935,935,935,2047,2047,2047,2047,2047,936,936,936,936,935,2047,2047,2047,2047,2047,935,936,936,936,936,2047,2047,2047,2047,2047,935,936,936,936,936,2047,2047,2047,2047,2047,936,936,936,936,936,2047,2047,2047,2047,2047,936,788,787,936,786,2047,2047,2047,2047,2047,789,789,788,788,787,787,787,788,788,788, 0.4234923, 0.0513324, -1.4786303154884854, 
1712956181140077452, 412, 228, 23.013582229614258, 934, 936,936,936,2047,2047,2047,2047,2047,2047,2047,935,935,935,934,2047,2047,2047,2047,2047,2047,935,935,935,934,934,2047,2047,2047,2047,2047,935,935,935,934,934,935,935,2047,2047,2047,935,935,935,935,935,935,934,2047,2047,2047,935,935,934,935,935,934,934,2047,2047,2047,935,935,934,934,935,934,933,2047,2047,2047,935,935,934,935,935,934,934,2047,2047,2047,934,935,934,934,934,934,934,2047,2047,2047,933,933,789,789,788,788,788,788,788,2047, 0.17851679999999998, 0.023284799999999998, -1.5238933638104406, 
1712956181178365871, 406, 229, 22.771183013916016, 934, 934,933,933,932,2047,2047,2047,2047,2047,2047,934,933,933,933,2047,2047,2047,2047,2047,2047,935,934,933,933,2047,2047,2047,2047,2047,2047,935,934,934,934,933,933,2047,2047,2047,2047,935,934,934,934,933,933,2047,2047,2047,2047,934,934,934,934,934,934,2047,2047,2047,2047,935,934,934,934,934,934,2047,2047,2047,2047,935,934,934,934,934,934,2047,2047,2047,2047,935,934,934,934,934,934,2047,2047,2047,2047,935,935,935,935,934,934,933,933,2047,789, 0.16687439999999998, 0.0213444, -1.5029993637342263, 
1712956181208475359, 399, 229, 22.594579696655273, 936, 934,934,2047,2047,2047,2047,2047,2047,2047,2047,935,935,935,2047,2047,2047,2047,2047,2047,2047,935,936,936,936,937,936,2047,2047,2047,2047,935,935,935,936,936,936,935,2047,2047,2047,936,935,935,935,935,935,934,935,2047,2047,936,936,935,936,936,936,934,935,934,2047,936,936,936,936,936,936,935,935,934,2047,937,936,936,936,935,935,934,934,934,2047,937,936,936,935,935,935,934,934,934,934,937,937,937,934,935,935,934,935,934,934, 0.1536234, 0.0213906, -1.5214312864366648, 
1712956181242629047, 393, 230, 22.464040756225586, 2047, 934,934,2047,2047,2047,2047,2047,2047,2047,2047,934,934,934,2047,2047,2047,2047,2047,2047,2047,935,935,935,934,2047,2047,2047,2047,2047,2047,935,935,936,935,2047,2047,2047,2047,2047,2047,935,935,936,935,935,2047,2047,2047,2047,2047,935,935,935,935,935,2047,2047,2047,2047,2047,935,936,936,935,936,2047,2047,2047,2047,2047,935,936,936,936,937,2047,2047,2047,2047,2047,934,937,937,937,2047,2047,2047,2047,2047,2047,788,788,788,2047,2047,2047,2047,2047,2047,2047, 0.31227209999999994, 0.042776999999999996, -1.4373941633958875, 
1712956181275264263, 387, 230, 22.45224380493164, 2047, 933,933,2047,2047,2047,2047,2047,2047,2047,2047,933,933,933,2047,2047,2047,2047,2047,2047,2047,934,934,933,2047,2047,2047,2047,2047,2047,2047,934,934,934,934,2047,2047,2047,2047,2047,2047,934,934,934,934,2047,2047,2047,2047,2047,2047,934,934,934,2047,2047,2047,2047,2047,2047,2047,934,934,2047,2047,2047,2047,2047,2047,2047,2047,934,934,2047,2047,2047,2047,2047,2047,2047,2047,934,934,2047,2047,2047,2047,2047,2047,2047,2047,935,785,784,784,2047,2047,2047,2047,2047,2047, 0.28660589999999997, 0.042776999999999996, -1.4323718958271654, 
1712956181310640562, 380, 230, 22.384252548217773, 934, 2047,2047,2047,2047,2047,2047,2047,2047,790,790,2047,2047,2047,2047,2047,2047,2047,2047,2047,790,2047,2047,2047,2047,2047,2047,2047,2047,2047,2047,934,934,2047,2047,2047,2047,2047,2047,2047,2047,934,934,934,2047,2047,2047,2047,2047,2047,2047,935,934,934,934,934,934,2047,2047,2047,2047,934,934,934,934,934,2047,2047,2047,2047,2047,934,934,934,935,935,935,2047,2047,2047,2047,935,936,936,936,936,935,2047,2047,2047,2047,936,936,937,937,937,935,2047,2047,2047,785, 0.11642399999999999, 0.019404, -1.4214413787261329, 
1712956181353855722, 365, 232, 22.21398162841797, 934, 934,934,934,934,934,933,934,2047,2047,2047,934,934,934,934,934,934,934,934,935,2047,934,934,934,934,934,934,934,934,934,2047,934,934,934,934,934,934,934,934,934,935,933,933,934,934,934,934,934,934,934,934,933,934,934,934,934,934,934,934,934,934,934,934,934,934,934,934,934,934,934,779,934,934,934,934,934,787,787,787,2047,2047,934,934,934,934,787,787,787,786,787,787,933,786,786,786,787,787,786,786,787,787, 0.08731799999999999, 0.0155232, -1.559817322146118, 
1712956181387381928, 358, 233, 22.311025619506836, 934, 934,934,934,934,933,934,934,2047,2047,2047,934,934,934,934,934,934,934,934,934,2047,934,934,934,934,934,934,934,934,934,934,934,934,934,934,934,934,934,934,934,2047,934,934,934,934,934,934,934,934,934,2047,934,934,934,934,934,934,934,934,934,2047,934,934,934,934,934,934,934,934,2047,2047,934,934,934,934,934,934,934,934,2047,2047,934,934,934,934,934,934,934,787,2047,2047,934,934,934,935,935,935,785,787,787,787, 0.07373519999999999, 0.013582799999999999, -1.543707338879144, 
1712956181423685066, 349, 233, 21.57257843017578, 934, 934,934,934,934,934,934,934,934,933,2047,934,934,934,934,934,934,934,934,934,934,934,934,934,934,934,934,934,934,934,934,934,934,934,934,934,934,934,934,933,934,934,934,934,934,934,934,934,934,934,934,934,934,934,934,934,934,934,933,933,934,934,934,934,934,934,934,934,933,933,934,934,934,934,934,934,934,934,933,933,934,934,934,934,934,934,934,934,934,934,934,934,933,934,934,934,934,933,933,933,934, 0.0562716, 0.013582799999999999, -1.6089971639656644, 
1712956181471173672, 342, 234, 21.95459747314453, 935, 934,934,934,934,934,2047,2047,2047,2047,2047,935,935,935,935,935,935,2047,2047,2047,2047,935,935,935,935,935,935,936,937,937,2047,935,935,935,935,935,935,935,936,934,2047,935,935,935,935,935,935,935,935,934,934,934,935,935,935,934,935,935,935,934,934,935,936,935,935,935,935,935,935,934,934,935,936,935,935,934,935,935,935,934,934,936,936,936,935,935,935,934,934,934,934,934,934,788,788,787,787,787,786,786,786, 0.042735, 0.011654999999999999, -1.524717413204541, 
1712956181506677232, 332, 235, 21.675559997558594, 935, 934,934,934,934,934,934,934,934,2047,2047,934,934,934,934,934,934,934,934,934,2047,934,934,934,934,934,934,934,934,934,2047,934,934,934,934,934,934,934,934,934,2047,934,934,934,934,934,934,934,934,934,934,934,934,934,934,934,935,935,935,935,934,934,934,934,934,935,935,935,935,935,2047,934,934,934,935,935,935,936,937,2047,2047,934,934,934,934,935,935,935,935,935,2047,935,935,935,935,782,782,782,786,786,786, 0.023309999999999997, 0.009712499999999999, -1.5669438555270763, 
1712956181540477963, 324, 236, 22.02281379699707, 935, 934,934,935,935,935,934,2047,2047,2047,2047,934,934,934,935,935,934,2047,2047,2047,2047,934,934,935,935,935,935,935,937,2047,2047,934,934,935,935,935,935,935,936,2047,2047,934,934,934,934,935,935,935,936,936,2047,934,933,934,934,935,935,935,936,2047,2047,934,933,934,934,935,936,935,935,2047,2047,934,933,934,934,935,935,781,781,781,781,934,933,934,934,934,934,781,781,782,781,934,934,935,935,786,785,783,783,783,783, 0.00777, 0.00777, -1.4792748632755168, 
1712956181574015966, 314, 237, 21.889257431030273, 2047, 2047,2047,2047,786,786,785,785,784,784,784,2047,2047,2047,787,787,786,785,785,785,785,2047,2047,2047,2047,786,786,785,785,785,785,2047,2047,2047,2047,2047,786,785,785,785,785,2047,2047,2047,2047,2047,2047,786,786,785,785,2047,2047,2047,2047,2047,2047,2047,785,785,785,2047,2047,2047,2047,2047,2047,2047,2047,785,786,2047,2047,2047,2047,2047,2047,2047,785,785,785,2047,2047,2047,2047,2047,2047,2047,785,785,785,784,784,783,784,784,785,785,785,784,785, -0.0256662, 0.0128331, -1.1677239047020103, 
1712956181607353548, 306, 238, 21.741914749145508, 787, 787,787,787,786,786,785,785,785,784,784,787,788,787,787,786,786,785,785,785,785,787,788,788,788,787,786,786,785,785,785,787,788,788,788,787,787,786,786,786,785,2047,788,788,788,788,787,787,786,786,785,2047,2047,788,788,788,787,787,786,786,785,2047,2047,2047,788,787,787,787,786,786,785,2047,2047,2047,2047,787,787,787,787,786,786,2047,2047,785,785,785,785,786,786,786,785,2047,785,785,784,785,784,785,785,785,785, -0.022843799999999997, 0.0032634, -1.1626394310417902, 
1712956181642629199, 296, 238, 21.370479583740234, 787, 785,785,785,785,785,785,784,784,784,784,2047,786,785,785,785,785,785,784,784,784,2047,787,786,786,786,785,785,785,785,784,2047,788,787,787,786,786,786,785,785,785,2047,788,787,787,787,786,786,786,786,785,2047,2047,2047,787,787,787,786,786,786,785,2047,2047,2047,2047,787,787,786,786,786,785,2047,2047,2047,2047,788,788,787,787,786,786,2047,2047,2047,2047,2047,788,787,787,786,786,2047,2047,2047,786,786,787,787,786,786,786, -0.039160799999999996, 0.0032634, -1.1212980254652887, 
1712956181673771838, 286, 240, 22.457433700561523, 786, 786,785,785,785,785,785,784,784,784,783,786,785,786,785,785,785,785,784,784,784,2047,786,786,786,785,785,785,785,784,784,2047,2047,787,786,786,786,785,785,785,785,2047,786,787,786,786,786,786,785,785,785,2047,2047,786,786,786,786,786,785,786,786,2047,784,785,785,786,786,786,786,786,787,783,783,785,785,786,786,786,786,786,787,783,783,785,785,785,785,786,786,787,787,784,784,785,785,785,785,786,786,787,787, -0.055406399999999995, -0.0, -1.1383065787457365, 
1712956181708329887, 278, 240, 21.59340476989746, 785, 785,785,785,784,784,784,783,783,783,782,785,785,785,785,785,784,784,783,783,783,785,785,785,785,785,785,784,784,784,783,786,785,785,785,785,785,784,784,784,784,786,786,786,786,786,785,785,785,784,784,785,785,785,786,785,785,785,785,785,784,2047,785,785,785,785,785,785,785,785,784,2047,2047,785,785,785,785,785,785,785,784,2047,2047,786,785,786,786,785,785,785,785,2047,2047,785,785,785,786,785,785,785,785, -0.06835499999999999, -0.0, -1.096622013664284, 
1712956181741734891, 268, 241, 22.021635055541992, 786, 785,785,785,784,784,784,784,783,783,783,785,785,785,785,784,784,784,784,784,783,785,785,785,785,785,785,784,784,784,784,786,786,785,785,785,785,785,784,784,784,786,786,786,785,785,785,785,785,784,784,787,787,786,786,786,786,785,785,785,784,787,787,786,786,786,786,785,785,785,784,787,787,787,786,786,786,786,785,785,784,787,786,786,786,786,786,785,785,785,785,787,786,786,785,786,786,785,785,785,785, -0.0847392, -0.0016296, -1.0916141600407416, 
1712956181779186782, 259, 242, 21.91708755493164, 785, 784,784,784,784,783,782,782,782,782,781,784,784,784,784,784,783,783,783,782,782,785,785,784,784,784,784,783,783,783,783,785,785,785,785,784,784,784,784,784,784,785,785,785,785,785,785,785,784,784,784,785,785,785,785,785,785,785,785,785,784,785,786,785,785,785,785,785,785,785,785,785,785,785,785,785,786,786,785,785,785,785,785,786,785,786,786,786,785,785,785,785,785,785,786,786,786,786,786,786,785, -0.09927749999999999, -0.003255, -1.1205505511987213, 
1712956181808836338, 249, 242, 22.263519287109375, 784, 783,783,783,782,782,782,781,781,781,781,783,783,783,783,782,782,782,781,782,781,784,784,783,783,783,782,782,782,782,781,784,784,784,784,784,783,783,783,783,782,785,785,785,784,784,784,784,783,784,783,785,785,785,785,784,784,784,784,784,784,785,785,785,785,784,784,784,784,784,784,785,785,785,785,785,785,785,785,785,785,785,785,785,785,785,785,785,785,785,785,785,785,786,785,785,785,785,785,785,785, -0.11540339999999999, -0.0032508, -1.0821602611034247, 
1712956181841483297, 238, 244, 22.77674102783203, 784, 784,784,783,783,782,781,781,781,781,781,784,784,784,783,783,782,782,781,782,781,785,784,784,784,783,783,782,782,782,782,785,784,784,784,784,783,783,783,783,783,785,785,785,784,784,784,784,784,784,784,785,785,785,785,784,784,784,784,784,784,785,785,785,785,784,784,784,784,784,784,786,785,785,785,785,785,785,785,785,785,786,786,785,785,785,785,785,785,785,785,786,786,785,785,785,786,785,785,785,785, -0.13328279999999998, -0.0065016, -1.0920459820896837, 
1712956181874540303, 227, 244, 22.8474178314209, 783, 783,782,782,782,781,781,781,781,781,781,783,783,783,782,782,782,781,781,781,781,783,783,783,782,782,782,782,781,781,781,784,783,783,783,783,783,782,782,782,782,784,784,784,784,783,783,783,783,783,783,785,784,784,784,784,783,783,783,783,783,785,785,784,784,784,784,783,783,783,783,785,785,785,785,784,784,784,784,784,784,785,785,785,785,784,784,784,784,784,784,785,785,785,785,785,784,784,784,784,784, -0.1509669, -0.0064932, -1.0810540916708034, 
1712956181907308717, 217, 245, 22.215543746948242, 783, 782,781,781,781,781,781,781,781,781,781,782,782,782,781,781,781,781,781,781,781,783,782,782,781,781,781,781,781,781,781,784,783,783,782,782,782,782,782,782,782,784,784,784,783,783,783,783,782,783,783,785,784,784,783,783,783,783,783,783,783,785,784,784,783,783,783,783,783,783,784,785,784,784,784,783,784,783,784,783,784,785,784,784,784,784,784,784,784,784,785,785,785,785,785,785,785,785,785,785,786, -0.16719989999999998, -0.0081165, -1.0815220266951198, 
1712956181941539520, 206, 246, 22.321613311767578, 784, 781,782,781,781,781,781,781,781,781,781,782,782,782,781,782,781,782,782,782,782,782,782,782,782,782,782,782,782,782,782,784,783,783,783,783,782,783,783,783,783,784,784,784,784,783,783,783,784,784,784,785,785,784,784,784,784,784,784,784,784,785,785,785,785,784,784,784,784,784,784,785,785,785,785,785,784,784,784,784,784,785,785,785,785,785,785,785,785,784,784,786,786,786,786,785,785,785,785,785,784, -0.18529559999999998, -0.0097524, -1.082428671293159, 
1712956181975455078, 194, 247, 22.444091796875, 784, 780,781,781,781,781,781,781,781,781,781,781,781,781,781,781,781,781,782,782,782,781,781,782,782,782,782,782,782,782,783,782,782,782,782,782,782,782,783,783,783,783,782,783,783,783,783,783,783,783,784,783,783,784,784,784,784,783,784,784,784,784,784,784,785,784,784,784,784,784,784,784,784,784,785,785,785,784,784,784,785,784,784,785,785,785,785,785,785,785,785,784,784,784,785,785,785,784,785,784,785, -0.2048004, -0.011377799999999999, -1.080745332785123, 
1712956182007407301, 182, 248, 23.40949821472168, 783, 781,780,780,780,780,780,780,780,781,781,781,781,781,781,781,780,780,780,781,781,782,781,781,781,781,781,781,781,781,781,783,783,783,782,782,781,782,782,782,782,783,783,783,783,782,782,782,782,783,783,784,783,783,783,783,783,783,783,783,783,784,784,784,783,783,783,783,783,783,784,784,784,784,784,783,783,784,784,784,784,784,784,784,784,784,784,784,784,785,785,784,784,784,784,784,784,785,785,785,785, -0.2240154, -0.0129864, -1.0831509127619463, 
1712956182041679545, 171, 250, 23.586769104003906, 783, 781,780,780,780,780,780,780,781,781,781,781,781,781,781,780,780,780,781,781,781,782,782,782,781,781,781,781,782,782,782,783,783,782,782,782,782,782,783,783,783,783,783,783,782,782,782,782,783,783,783,784,783,783,783,783,783,782,783,783,783,784,783,783,783,783,783,783,783,783,784,784,783,783,783,783,783,783,784,784,784,784,784,784,784,783,784,784,784,784,784,784,784,783,784,784,784,784,784,785,785, -0.24187169999999997, -0.016233, -1.086551901455015, 
1712956182075402170, 158, 249, 23.711910247802734, 783, 781,781,781,781,781,781,781,781,781,781,782,782,781,781,781,781,781,782,781,781,783,782,782,782,782,782,782,783,782,782,783,783,782,782,782,783,783,783,783,783,783,783,783,783,783,783,783,783,783,783,783,783,783,783,783,783,783,783,783,783,784,784,783,783,783,783,783,784,783,784,784,784,783,783,783,783,783,784,784,784,784,784,784,784,784,784,784,784,784,784,784,784,784,784,784,784,784,785,785,785, -0.2629746, -0.014609699999999998, -1.0837688042772506, 
1712956182107422013, 147, 250, 23.64856719970703, 784, 782,782,782,782,782,783,783,783,783,783,782,782,782,782,782,782,783,783,783,783,782,783,782,782,782,783,783,783,783,783,783,783,783,783,783,783,783,783,784,783,783,783,783,783,783,784,784,784,784,784,784,784,783,784,784,784,784,784,784,784,784,784,784,784,784,784,784,784,784,784,784,784,784,784,785,785,785,785,785,784,785,785,785,786,786,786,786,786,785,785,786,786,786,787,787,787,787,787,786,785, -0.28119419999999995, -0.016253999999999998, -1.085361386293408, 
1712956182141298427, 135, 252, 24.243549346923828, 784, 783,783,783,783,783,783,783,783,783,783,783,783,783,783,783,783,783,783,783,783,783,783,783,782,783,783,783,783,783,783,783,783,783,783,783,783,784,784,784,784,784,784,784,783,783,784,784,784,783,784,784,784,784,784,784,784,784,784,784,784,785,784,784,784,784,784,784,784,784,784,785,785,784,784,784,784,784,784,784,784,785,785,785,784,784,784,784,784,784,785,786,786,785,786,786,785,785,785,785,785, -0.30069899999999994, -0.0195048, -1.083854368926924, 
1712956182175423442, 122, 253, 24.385150909423828, 784, 782,782,782,782,782,782,783,783,783,783,782,782,782,783,783,783,783,783,784,784,783,783,783,783,783,783,784,784,784,784,783,783,783,783,783,783,784,784,784,784,784,783,783,784,784,784,784,784,784,785,784,784,784,784,784,784,784,785,785,785,784,784,784,784,784,784,784,785,785,785,784,784,784,785,784,785,785,786,786,786,784,784,784,785,784,785,785,787,786,787,785,784,784,785,785,786,785,787,787,787, -0.3218292, -0.0211302, -1.0852029550343099, 
1712956182207630951, 110, 252, 24.135135650634766, 783, 780,780,781,781,781,781,781,782,782,783,781,781,781,781,781,782,782,782,783,783,781,781,781,781,782,782,782,783,783,783,781,781,781,782,782,782,782,783,783,784,782,782,782,782,782,783,783,783,784,784,782,782,782,783,783,783,783,784,784,785,783,783,783,783,784,784,784,785,785,785,783,784,783,784,784,784,784,785,785,785,784,784,784,784,784,785,785,785,786,786,784,785,785,785,785,785,786,786,786,786, -0.34089299999999995, -0.019479599999999996, -1.0808929922631487, 
1712956182241385291, 96, 255, 24.624832153320312, 784, 781,781,781,781,782,782,782,782,783,783,781,781,781,781,782,782,782,782,783,783,782,782,782,782,782,783,782,783,783,784,782,783,783,783,783,783,783,783,784,784,783,783,783,783,783,783,784,784,784,785,783,783,783,783,784,784,784,784,784,785,783,783,784,784,784,784,784,784,785,785,783,784,784,784,784,784,784,785,786,786,784,784,784,784,784,784,785,785,786,787,784,784,785,785,785,785,785,786,787,787, -0.36408959999999996, -0.024381, -1.0874859476338479, 
1712956182275479199, 84, 255, 24.673473358154297, 784, 781,781,782,783,782,783,782,782,783,783,781,782,783,783,783,783,783,783,783,784,782,782,783,783,783,783,783,783,783,784,782,782,783,783,783,783,783,783,784,785,783,783,783,783,783,783,783,784,784,785,783,783,783,783,784,784,784,784,785,786,783,783,784,783,784,784,784,785,785,786,784,784,784,784,784,784,785,785,786,787,784,784,784,784,784,785,785,786,787,787,784,784,784,784,785,786,786,787,787,788, -0.38359439999999995, -0.024381, -1.0993707000491704, 
1712956182307672026, 70, 257, 25.432815551757812, 784, 781,781,781,781,781,782,783,783,784,784,781,781,781,781,782,782,783,784,784,784,782,782,782,782,782,783,783,784,784,784,782,782,782,782,783,783,784,785,785,785,783,783,783,784,784,784,785,785,786,786,783,783,784,784,784,784,785,785,785,786,783,783,783,784,784,784,785,785,785,786,783,783,784,784,784,784,785,785,786,786,783,784,784,784,784,784,785,785,786,786,783,784,784,784,784,785,785,785,786,786, -0.40635, -0.027631799999999998, -1.0927978652154056, 
1712956182341468598, 56, 259, 26.000099182128906, 783, 779,779,780,780,780,781,781,782,782,783,779,779,780,780,780,781,782,782,783,783,779,780,780,780,781,782,782,783,783,783,780,780,781,781,782,782,783,783,783,784,780,781,781,781,782,783,783,783,784,784,780,781,781,781,782,783,783,783,783,784,781,781,781,782,782,783,783,783,783,784,781,782,782,782,782,783,783,783,783,784,782,782,782,783,783,783,783,783,783,784,782,783,783,783,783,784,784,784,783,784, -0.4285512, -0.030842699999999997, -1.1124478839205973, 
1712956182375370229, 43, 261, 26.282028198242188, 783, 779,779,778,779,780,780,781,782,782,783,779,779,778,779,780,781,781,782,783,783,779,779,779,779,781,781,782,782,783,784,779,779,779,779,781,782,782,783,784,784,779,779,779,780,782,783,783,783,784,784,780,780,779,780,782,783,783,783,784,785,781,780,780,780,783,783,783,784,784,784,782,781,781,2047,783,784,783,784,784,784,783,2047,2047,2047,783,784,784,784,784,784,783,2047,2047,2047,2047,2047,784,783,783,783, -0.44965409999999995, -0.034089299999999996, -1.1694229467388468, 
1712956182409464792, 29, 262, 27.11559295654297, 782, 779,779,779,780,781,781,781,780,781,782,779,779,780,781,781,781,781,781,782,782,779,780,780,781,782,782,781,781,782,782,779,780,781,781,782,782,782,782,782,783,780,781,781,782,782,782,782,782,782,783,781,781,782,782,782,782,782,782,782,783,781,781,782,782,782,782,782,782,783,783,781,781,781,782,782,782,782,782,782,783,781,781,781,782,782,782,782,782,782,783,782,782,782,782,782,782,782,782,782,2047, -0.47176919999999994, -0.035666399999999994, -1.1998588139530921, 
1712956182447894251, 20, 257, 24.602319717407227, 783, 780,780,779,780,780,781,781,781,782,782,780,780,780,781,781,781,782,782,783,783,781,781,781,781,782,782,782,782,783,783,782,781,781,782,782,782,782,783,783,783,782,782,781,782,782,782,783,783,783,784,782,782,782,782,782,783,783,783,784,784,782,782,782,782,783,783,783,783,784,784,782,782,782,783,783,783,784,784,784,784,783,783,783,783,783,784,784,784,784,785,783,782,782,783,783,784,784,784,784,785, -0.48699, -0.0275961, -1.24968005768124, 
1712956182489270647, 6, 260, 17.270015716552734, 786, 782,782,782,783,783,783,783,783,784,785,783,783,783,783,783,783,784,784,785,785,783,783,783,784,784,784,784,785,786,786,783,784,784,784,785,785,785,786,786,786,784,784,785,785,785,785,786,786,787,787,784,785,785,785,785,786,786,787,787,787,785,786,785,786,786,786,787,787,788,788,785,786,786,786,786,787,787,787,788,789,785,786,786,786,787,787,787,788,789,789,786,787,787,787,787,788,787,788,788,930, -0.5116944, -0.032591999999999996, -1.2621724675850476, 
